# .PCD v.7 - Point Cloud Data file format
VERSION .7
FIELDS x y z
SIZE 4 4 4
TYPE F F F
COUNT 1 1 1
WIDTH 126
HEIGHT 1
VIEWPOINT 0 0 0 1 0 0 0
POINTS 126
DATA ascii
0.39080575 -0.56916004 2.7540002
0.39605147 -0.56916004 2.7540002
0.39080575 -0.5639143 2.7540002
0.39605147 -0.5639143 2.7540002
0.39080575 -0.55866861 2.7540002
0.39605147 -0.55866861 2.7540002
0.39605147 -0.55342293 2.7540002
0.38470384 -0.53961813 2.7110002
0.3834905 -0.54746574 2.7770002
0.38878003 -0.54746574 2.7770002
0.38470384 -0.53445435 2.7110002
0.38878003 -0.54217625 2.7770002
0.35098094 -0.47395241 2.6900001
0.35332477 -0.47025239 2.6690001
0.35840857 -0.47025239 2.6690001
0.34585714 -0.46882859 2.6900001
0.35098094 -0.46882859 2.6900001
0.35610476 -0.46882859 2.6900001
0.36122859 -0.46882859 2.6900001
0.34073335 -0.46370476 2.6900001
0.34585714 -0.46370476 2.6900001
0.35098094 -0.46370476 2.6900001
0.35610476 -0.46370476 2.6900001
0.34073335 -0.45858097 2.6900001
0.34585714 -0.45858097 2.6900001
0.35098094 -0.45858097 2.6900001
0.33560953 -0.45345715 2.6900001
0.34073335 -0.45345715 2.6900001
0.34585714 -0.45345715 2.6900001
0.35098094 -0.45345715 2.6900001
0.33560953 -0.44833332 2.6900001
0.34073335 -0.44833332 2.6900001
0.33048573 -0.44320953 2.6900001
0.33560953 -0.44320953 2.6900001
0.29589427 0.98897994 2.799
0.29589427 0.99431139 2.799
0.30122572 0.99431139 2.799
0.30655715 0.99431139 2.799
0.36520287 0.99431139 2.799
0.3758657 0.99431139 2.799
0.38652858 0.99431139 2.799
0.30655715 0.99964285 2.799
0.31188858 0.99964285 2.799
0.31722 0.99964285 2.799
0.32255143 0.99964285 2.799
0.32788286 0.99964285 2.799
0.33321428 0.99964285 2.799
0.36520287 0.99964285 2.799
0.3705343 0.99964285 2.799
0.37291145 0.99178582 2.7770002
0.38119712 0.99964285 2.799
0.38652858 0.99964285 2.799
0.38878003 0.99178582 2.7770002
0.39080575 0.98357153 2.7540002
0.31472668 0.99707532 2.7770002
0.32001621 0.99707532 2.7770002
0.32530573 0.99707532 2.7770002
0.32785717 0.98881721 2.7540002
0.35987142 1.0049742 2.799
0.3623324 0.99707532 2.7770002
0.36457717 0.98881721 2.7540002
0.36700284 0.98127717 2.733
0.37220857 0.98127717 2.733
0.37741429 0.98127717 2.733
0.37954003 0.97337812 2.7110002
0.38470384 0.97337812 2.7110002
0.39303145 0.98127717 2.733
0.39823717 0.98127717 2.733
0.34646383 1.0023648 2.7770002
0.35175335 1.0023648 2.7770002
0.35408574 0.99406296 2.7540002
0.35933146 0.99406296 2.7540002
0.35888481 0.97854203 2.7110002
0.3640486 0.97854203 2.7110002
0.36921242 0.97854203 2.7110002
0.3714762 0.97096193 2.6900001
0.37660003 0.97096193 2.6900001
0.38172379 0.97096193 2.6900001
0.38684762 0.97096193 2.6900001
0.39503145 0.97854203 2.7110002
0.34618002 0.99168861 2.733
0.35138571 0.99168861 2.733
0.35659143 0.99168861 2.733
0.35888481 0.98370582 2.7110002
0.3640486 0.98370582 2.7110002
0.36635238 0.97608572 2.6900001
0.3714762 0.97608572 2.6900001
0.37660003 0.97608572 2.6900001
0.38172379 0.97608572 2.6900001
0.38684762 0.97608572 2.6900001
0.39503145 0.98370582 2.7110002
0.35138571 0.9968943 2.733
0.35372096 0.98886961 2.7110002
0.35888481 0.98886961 2.7110002
0.36122859 0.98120952 2.6900001
0.36635238 0.98120952 2.6900001
0.3714762 0.98120952 2.6900001
0.37660003 0.98120952 2.6900001
0.38172379 0.98120952 2.6900001
0.38684762 0.98120952 2.6900001
0.39503145 0.98886961 2.7110002
0.36635238 0.98633337 2.6900001
0.3714762 0.98633337 2.6900001
0.37660003 0.98633337 2.6900001
0.38172379 0.98633337 2.6900001
0.38684762 0.98633337 2.6900001
0.39197144 0.98633337 2.6900001
0.36635238 0.99145716 2.6900001
0.3714762 0.99145716 2.6900001
0.37660003 0.99145716 2.6900001
0.38172379 0.99145716 2.6900001
0.38684762 0.99145716 2.6900001
0.39197144 0.99145716 2.6900001
0.39709523 0.99145716 2.6900001
0.38172379 0.99658096 2.6900001
0.38684762 0.99658096 2.6900001
0.39197144 0.99658096 2.6900001
0.39709523 0.99658096 2.6900001
0.38172379 1.0017048 2.6900001
0.38684762 1.0017048 2.6900001
0.38891146 0.99388486 2.6690001
0.39709523 1.0017048 2.6900001
0.38891146 0.99896866 2.6690001
0.39399526 0.99896866 2.6690001
0.39907905 0.99896866 2.6690001
0.39399526 1.0040524 2.6690001
